1
100
0.615627667866647	0.442021358059719	0.895862758625299	3.15070
0.155523253604770	0.944988018134609	0.419350653421134	1.23460
0.016270657069981	0.034650900634006	0.304130329284817	1.93660
0.971721034497023	0.433537271106616	0.179195535834879	0.14058
0.814589220099151	0.399899034993723	0.559194472152740	3.04750
0.830513784661889	0.535513030597940	0.070931251626462	0.52532
0.835593656636775	0.410864134551957	0.766781429294497	2.63230
0.386776305735111	0.054586179787293	0.759396591689438	0.17187
0.024472489021719	0.604035686003044	0.662073009181768	0.38915
0.656772559508681	0.663873402634636	0.569159350823611	1.16900
0.444639337249100	0.169528664322570	0.560878461692482	3.34400
0.797452542930841	0.802421558881178	0.966938202735037	1.97190
0.338279793970287	0.253817907767370	0.873306353110820	3.69290
0.948249163106084	0.884192059049383	0.606524575036019	3.52480
0.249398299492896	0.574972492875531	0.179936441127211	0.70623
0.135375112295151	0.819545239442959	0.936204524245113	4.44710
0.209365016780794	0.350390109466389	0.870491549838334	1.69550
0.238619742915034	0.849224737146869	0.368680610787123	0.28086
0.984962706454098	0.537031435640529	0.345009444747120	2.04240
0.020645942538977	0.690841865027323	0.013493773993105	1.80180
0.388933601789176	0.384154512779787	0.777514707762748	4.29090
0.218787008896470	0.997859986731783	0.971945207100362	2.39200
0.653026283718646	0.298549120547250	0.442190612200648	1.30150
0.699343524873257	0.131078891688958	0.194518232252449	4.47570
0.863542555831373	0.022271151887253	0.602050997782499	3.46800
0.674380233511329	0.242619170108810	0.900800175499171	0.01722
0.459384319372475	0.122876988025382	0.960112145636231	4.99650
0.981022913008928	0.672406587982550	0.561904241796583	0.08142
0.792600448243320	0.796157873468474	0.673064653296024	4.24770
0.423255251720548	0.657156462082639	0.445391390006989	3.45700
0.751433664001524	0.981374291004613	0.927445309702307	3.14080
0.176215723156929	0.351858034962788	0.722692207898945	4.34170
0.445867410860956	0.788990336703137	0.078308970201761	0.62068
0.252994460985065	0.163758849957958	0.139028787147254	4.09090
0.955672730691731	0.240908094914630	0.350400431547314	0.18670
0.033930134028196	0.398849126184359	0.245836598332971	2.02740
0.140955138020217	0.323202013270929	0.101826306898147	1.48490
0.858406821265817	0.220846133539453	0.195686365943402	0.31519
0.515201495029032	0.351353277685121	0.650226900819689	0.96222
0.679150886833668	0.922678567701951	0.099705943372101	2.89450
0.180826886557043	0.647984187351540	0.661448084283620	1.58310
0.779027855023742	0.510470925131813	0.947502187918872	3.48020
0.827221495099366	0.533092529745772	0.100713169667870	1.60900
0.550339285284281	0.600027878070250	0.089582835789770	2.62210
0.791297475807369	0.626785955624655	0.746294785756618	2.44000
0.336619647219777	0.625818649539724	0.282278377097100	3.82790
0.180535831488669	0.464516354026273	0.265686752740294	0.51952
0.336933195590973	0.362461388343945	0.295163930859417	3.74930
0.058533287607133	0.424814227269962	0.854275957215577	3.30040
0.572670845314860	0.758707544067875	0.080981120001525	1.42930
0.693049167282879	0.969523065956309	0.436514227185398	4.27490
0.916847046464682	0.083926242077723	0.508059946354479	1.61330
0.866552266292274	0.196533723967150	0.429590207058936	2.06600
0.185896659269929	0.387088658520952	0.655240665655583	2.12200
0.249267728067935	0.705018793465570	0.069601232651621	3.58210
0.293971829116344	0.268252395326272	0.669295662548393	0.28667
0.834723918698728	0.773166979895905	0.300225206185132	1.23350
0.469738861545920	0.962545855203643	0.184851325582713	3.44770
0.437799301929772	0.848417476983741	0.223892471287400	4.21170
0.535675097256899	0.736652616644278	0.306809922214597	3.51470
0.255269314162433	0.350194341735914	0.115457687992603	3.83150
0.249865787103772	0.597795808920637	0.155271473806351	0.58980
0.488853239454329	0.785140869440511	0.998371707741171	2.93510
0.710300967097282	0.315222487086430	0.972955630626529	0.65309
0.030761084519327	0.174853968666866	0.783353448379785	4.35870
0.821672333404422	0.754188006976619	0.795123546849936	2.31070
0.211740453727543	0.796118536265567	0.969561769161373	3.46220
0.824670117348433	0.522440400207415	0.681999755557626	2.60540
0.611623424105346	0.233641832368448	0.908267345745116	4.72080
0.887779960408807	0.929204749176279	0.513694043736905	1.88950
0.932373420335352	0.745287855388597	0.629024545196444	2.37900
0.761579789221287	0.256667562061921	0.347623327281326	2.76050
0.933632089756429	0.939811717020348	0.228343300987035	0.16816
0.495536690577865	0.343961147824302	0.338433525990695	3.05930
0.430766177363694	0.767094017239288	0.820860987994820	0.08493
0.217303786426783	0.483647991204634	0.220421438571066	2.93020
0.355414400808513	0.820875219302252	0.053014297503978	0.23361
0.974517108872533	0.630705127725378	0.352456617634743	0.94476
0.878534325398505	0.953990024747327	0.179211112204939	1.73030
0.639092475175858	0.924008518690243	0.325403244700283	4.28660
0.595949239097536	0.206101748393849	0.700502381194383	4.66950
0.874022362753749	0.520317426184192	0.132042005192488	2.99980
0.776395027525723	0.043936693342403	0.565753994975239	3.15390
0.162672784179449	0.740758788073435	0.899491963442415	3.29960
0.672067048959434	0.914018525974825	0.935318660456687	4.38560
0.900580162182450	0.529811593005434	0.184132437687367	4.94490
0.891667009331286	0.107902650954202	0.507207775954157	1.82070
0.549748204648495	0.226791255408898	0.829024875070900	2.67450
0.835949837230146	0.939910586224869	0.405763306189328	2.38620
0.855444779619575	0.649833990493789	0.383834726642817	1.70460
0.195770558901131	0.237364338012412	0.632829657290131	2.75890
0.125498790293932	0.492381189251319	0.087253322359174	2.28950
0.512631173245609	0.143320775823668	0.081425551790744	4.70790
0.572097050026059	0.032163793453947	0.411919746082276	3.34500
0.801727526821196	0.231806007446721	0.111915903631598	4.49790
0.716081157326698	0.152686670655385	0.171842710580677	0.13317
0.237496188841760	0.935549753950909	0.690683693159372	1.35700
0.853744370862842	0.677212989190593	0.192322432529181	1.01130
0.901661326177418	0.286219724686816	0.091301842126995	0.00532
0.586128484457731	0.015248593175784	0.542372507508844	3.24180
